ply
format ascii 1.0
comment Created by Open3D
element vertex 3144
property double x
property double y
property double z
end_header
87 79 -9.81997
88 79 -10.5237
89 79 -11.31
90 79 -12.1513
91 79 -13.1314
92 79 -14.2798
93 79 -15.8811
94 79 -18.2743
95 79 -25.9734
96 79 -51.7467
97 79 -51.7467
98 79 -51.7467
99 79 -51.7467
100 79 -51.7467
101 79 -51.7467
102 79 -51.7467
103 79 -51.7467
104 79 -51.7467
105 79 -51.7467
106 79 -51.7467
107 79 -51.7467
108 79 -51.7467
109 79 -51.7467
110 79 -51.7467
111 79 -51.7467
112 79 -51.7467
113 79 -51.7467
114 79 -51.7467
115 79 -51.7467
116 79 -51.7467
117 79 -51.7467
118 79 -51.7467
119 79 -51.7467
0 80 -51.7467
1 80 -51.7467
2 80 -51.7467
3 80 -51.7467
4 80 -51.7467
5 80 -51.7467
6 80 -51.7467
7 80 -51.7467
8 80 -51.7467
9 80 -51.7467
10 80 -51.7467
11 80 -51.7467
12 80 -51.7467
13 80 -51.7467
14 80 -51.7467
15 80 -51.7467
16 80 -51.7467
17 80 -51.7467
18 80 -51.7467
19 80 -51.7467
20 80 -51.7467
21 80 -51.7467
22 80 -51.7467
23 80 -51.7467
24 80 -51.7467
25 80 -51.7467
26 80 -19.2275
27 80 -23.7212
28 80 -21.5694
29 80 -19.7477
30 80 -18.7882
31 80 -17.4912
32 80 -16.174
33 80 -14.917
34 80 -13.1114
35 80 -12.1079
36 80 -11.2233
37 80 -10.3823
38 80 -9.63183
39 80 -8.92725
40 80 -8.28538
41 80 -7.70577
42 80 -7.13915
43 80 -6.63262
44 80 -6.162
45 80 -5.6943
46 80 -5.29048
47 80 -4.91343
48 80 -4.57266
49 80 -4.23687
50 80 -3.91958
51 80 -3.56461
52 80 -3.20112
53 80 -2.85611
54 80 -2.55141
55 80 -2.40491
56 80 -2.21715
57 80 -2.05953
58 80 -1.96293
59 80 -1.92445
60 80 -1.93696
61 80 -1.97376
62 80 -2.0081
63 80 -2.0721
64 80 -2.13342
65 80 -2.23682
66 80 -2.32243
67 80 -2.2379
68 80 -1.99915
69 80 -1.80654
70 80 -1.70287
71 80 -1.73049
72 80 -1.81437
73 80 -1.93934
74 80 -2.10161
75 80 -2.28919
76 80 -2.49772
77 80 -2.83774
78 80 -3.37842
79 80 -4.11649
80 80 -4.85595
81 80 -5.58419
82 80 -6.33763
83 80 -7.12048
84 80 -7.84046
85 80 -8.49623
86 80 -9.12749
87 80 -9.82603
88 80 -10.571
89 80 -11.3801
90 80 -12.3142
91 80 -13.3242
92 80 -14.5523
93 80 -16.3016
94 80 -18.891
95 80 -27.6364
96 80 -51.7467
97 80 -51.7467
98 80 -51.7467
99 80 -51.7467
100 80 -51.7467
101 80 -51.7467
102 80 -51.7467
103 80 -51.7467
104 80 -51.7467
105 80 -51.7467
106 80 -51.7467
107 80 -51.7467
108 80 -51.7467
109 80 -51.7467
110 80 -51.7467
111 80 -51.7467
112 80 -51.7467
113 80 -51.7467
114 80 -51.7467
115 80 -51.7467
116 80 -51.7467
117 80 -51.7467
118 80 -51.7467
119 80 -51.7467
0 81 -51.7467
1 81 -51.7467
2 81 -51.7467
3 81 -51.7467
4 81 -51.7467
5 81 -51.7467
6 81 -51.7467
7 81 -51.7467
8 81 -51.7467
9 81 -51.7467
10 81 -51.7467
11 81 -51.7467
12 81 -51.7467
13 81 -51.7467
14 81 -51.7467
15 81 -51.7467
16 81 -51.7467
17 81 -51.7467
18 81 -51.7467
19 81 -51.7467
20 81 -51.7467
21 81 -51.7467
22 81 -51.7467
23 81 -51.7467
24 81 -51.7467
25 81 -51.7467
26 81 -13.9599
27 81 -23.508
28 81 -22.1643
29 81 -20.5011
30 81 -19.5177
31 81 -18.0969
32 81 -16.6598
33 81 -15.2934
34 81 -13.9743
35 81 -12.3374
36 81 -11.4126
37 81 -10.5621
38 81 -9.77862
39 81 -9.04913
40 81 -8.40672
41 81 -7.82293
42 81 -7.26465
43 81 -6.76924
44 81 -6.27905
45 81 -5.81681
46 81 -5.42656
47 81 -5.05796
48 81 -4.72243
49 81 -4.39049
50 81 -4.06078
51 81 -3.69928
52 81 -3.31205
53 81 -2.94167
54 81 -2.59358
55 81 -2.43271
56 81 -2.23204
57 81 -2.06508
58 81 -1.96174
59 81 -1.92516
60 81 -1.91889
61 81 -1.98538
62 81 -2.07438
63 81 -2.17778
64 81 -2.31822
65 81 -2.48257
66 81 -2.60739
67 81 -2.56338
68 81 -2.36025
69 81 -2.09635
70 81 -1.96429
71 81 -1.92975
72 81 -1.96986
73 81 -2.06448
74 81 -2.2103
75 81 -2.37426
76 81 -2.53821
77 81 -2.83946
78 81 -3.30998
79 81 -4.02647
80 81 -4.75246
81 81 -5.49153
82 81 -6.22743
83 81 -6.97232
84 81 -7.73632
85 81 -8.42778
86 81 -9.09525
87 81 -9.81474
88 81 -10.612
89 81 -11.4786
90 81 -12.4931
91 81 -13.5591
92 81 -14.9101
93 81 -16.8698
94 81 -19.9716
95 81 -31.1023
96 81 -51.7467
97 81 -51.7467
98 81 -51.7467
99 81 -51.7467
100 81 -51.7467
101 81 -51.7467
102 81 -51.7467
103 81 -51.7467
104 81 -51.7467
105 81 -51.7467
106 81 -51.7467
107 81 -51.7467
108 81 -51.7467
109 81 -51.7467
110 81 -51.7467
111 81 -51.7467
112 81 -51.7467
113 81 -51.7467
114 81 -51.7467
115 81 -51.7467
116 81 -51.7467
117 81 -51.7467
118 81 -51.7467
119 81 -51.7467
0 82 -51.7467
1 82 -51.7467
2 82 -51.7467
3 82 -51.7467
4 82 -51.7467
5 82 -51.7467
6 82 -51.7467
7 82 -51.7467
8 82 -51.7467
9 82 -51.7467
10 82 -51.7467
11 82 -51.7467
12 82 -51.7467
13 82 -51.7467
14 82 -51.7467
15 82 -51.7467
16 82 -51.7467
17 82 -51.7467
18 82 -51.7467
19 82 -51.7467
20 82 -51.7467
21 82 -51.7467
22 82 -51.7467
23 82 -51.7467
24 82 -51.7467
25 82 -51.7467
26 82 -51.7467
27 82 -25.2724
28 82 -23.4105
29 82 -21.5495
30 82 -20.4193
31 82 -18.8396
32 82 -17.2404
33 82 -15.7384
34 82 -14.313
35 82 -12.5812
36 82 -11.628
37 82 -10.7617
38 82 -9.97018
39 82 -9.2196
40 82 -8.54479
41 82 -7.94959
42 82 -7.3945
43 82 -6.90878
44 82 -6.40844
45 82 -5.96819
46 82 -5.5887
47 82 -5.237
48 82 -4.90849
49 82 -4.56583
50 82 -4.20091
51 82 -3.82311
52 82 -3.41932
53 82 -3.01478
54 82 -2.66517
55 82 -2.47708
56 82 -2.26072
57 82 -2.09418
58 82 -1.9977
59 82 -1.93374
60 82 -1.98087
61 82 -2.06038
62 82 -2.20374
63 82 -2.39033
64 82 -2.57512
65 82 -2.77051
66 82 -2.90684
67 82 -2.89478
68 82 -2.76864
69 82 -2.50507
70 82 -2.2919
71 82 -2.23574
72 82 -2.24548
73 82 -2.30209
74 82 -2.3855
75 82 -2.49827
76 82 -2.66726
77 82 -2.89627
78 82 -3.30819
79 82 -3.94877
80 82 -4.68335
81 82 -5.43168
82 82 -6.16477
83 82 -6.89651
84 82 -7.65778
85 82 -8.38406
86 82 -9.07248
87 82 -9.8311
88 82 -10.6811
89 82 -11.5849
90 82 -12.6444
91 82 -13.8079
92 82 -15.255
93 82 -17.4066
94 82 -21.3031
95 82 -34.5587
96 82 -51.7467
97 82 -51.7467
98 82 -51.7467
99 82 -51.7467
100 82 -51.7467
101 82 -51.7467
102 82 -51.7467
103 82 -51.7467
104 82 -51.7467
105 82 -51.7467
106 82 -51.7467
107 82 -51.7467
108 82 -51.7467
109 82 -51.7467
110 82 -51.7467
111 82 -51.7467
112 82 -51.7467
113 82 -51.7467
114 82 -51.7467
115 82 -51.7467
116 82 -51.7467
117 82 -51.7467
118 82 -51.7467
119 82 -51.7467
0 83 -51.7467
1 83 -51.7467
2 83 -51.7467
3 83 -51.7467
4 83 -51.7467
5 83 -51.7467
6 83 -51.7467
7 83 -51.7467
8 83 -51.7467
9 83 -51.7467
10 83 -51.7467
11 83 -51.7467
12 83 -51.7467
13 83 -51.7467
14 83 -51.7467
15 83 -51.7467
16 83 -51.7467
17 83 -51.7467
18 83 -51.7467
19 83 -51.7467
20 83 -51.7467
21 83 -51.7467
22 83 -51.7467
23 83 -51.7467
24 83 -51.7467
25 83 -51.7467
26 83 -51.7467
27 83 -26.7029
28 83 -25.0153
29 83 -22.8224
30 83 -21.6227
31 83 -19.8005
32 83 -17.9276
33 83 -16.2463
34 83 -14.7101
35 83 -12.8663
36 83 -11.8836
37 83 -10.9885
38 83 -10.163
39 83 -9.41466
40 83 -8.73
41 83 -8.1148
42 83 -7.55904
43 83 -7.05503
44 83 -6.58505
45 83 -6.16024
46 83 -5.79258
47 83 -5.44633
48 83 -5.09804
49 83 -4.73618
50 83 -4.35568
51 83 -3.96711
52 83 -3.54464
53 83 -3.11287
54 83 -2.73091
55 83 -2.53317
56 83 -2.29885
57 83 -2.13708
58 83 -2.05083
59 83 -2.00236
60 83 -2.0561
61 83 -2.19226
62 83 -2.37436
63 83 -2.64135
64 83 -2.90487
65 83 -3.13766
66 83 -3.23865
67 83 -3.24424
68 83 -3.14047
69 83 -2.94691
70 83 -2.71822
71 83 -2.62278
72 83 -2.55569
73 83 -2.54303
74 83 -2.57068
75 83 -2.64986
76 83 -2.77808
77 83 -3.00631
78 83 -3.3509
79 83 -3.925
80 83 -4.65097
81 83 -5.37734
82 83 -6.11506
83 83 -6.85805
84 83 -7.60112
85 83 -8.3353
86 83 -9.04229
87 83 -9.84865
88 83 -10.7142
89 83 -11.6895
90 83 -12.7686
91 83 -14.0189
92 83 -15.424
93 83 -17.4289
94 83 -23.2088
95 83 -51.7467
96 83 -51.7467
97 83 -51.7467
98 83 -51.7467
99 83 -51.7467
100 83 -51.7467
101 83 -51.7467
102 83 -51.7467
103 83 -51.7467
104 83 -51.7467
105 83 -51.7467
106 83 -51.7467
107 83 -51.7467
108 83 -51.7467
109 83 -51.7467
110 83 -51.7467
111 83 -51.7467
112 83 -51.7467
113 83 -51.7467
114 83 -51.7467
115 83 -51.7467
116 83 -51.7467
117 83 -51.7467
118 83 -51.7467
119 83 -51.7467
0 84 -51.7467
1 84 -51.7467
2 84 -51.7467
3 84 -51.7467
4 84 -51.7467
5 84 -51.7467
6 84 -51.7467
7 84 -51.7467
8 84 -51.7467
9 84 -51.7467
10 84 -51.7467
11 84 -51.7467
12 84 -51.7467
13 84 -51.7467
14 84 -51.7467
15 84 -51.7467
16 84 -51.7467
17 84 -51.7467
18 84 -51.7467
19 84 -51.7467
20 84 -51.7467
21 84 -51.7467
22 84 -51.7467
23 84 -51.7467
24 84 -51.7467
25 84 -51.7467
26 84 -51.7467
27 84 -51.7467
28 84 -28.3089
29 84 -24.5795
30 84 -23.4156
31 84 -20.9526
32 84 -18.7313
33 84 -16.841
34 84 -15.1841
35 84 -13.2196
36 84 -12.2009
37 84 -11.2791
38 84 -10.4278
39 84 -9.64995
40 84 -8.96031
41 84 -8.33006
42 84 -7.75726
43 84 -7.24061
44 84 -6.7937
45 84 -6.34949
46 84 -6.00498
47 84 -5.66482
48 84 -5.30217
49 84 -4.91324
50 84 -4.52506
51 84 -4.10634
52 84 -3.68006
53 84 -3.25877
54 84 -2.84411
55 84 -2.53009
56 84 -2.31494
57 84 -2.18504
58 84 -2.11826
59 84 -2.09348
60 84 -2.162
61 84 -2.3297
62 84 -2.60075
63 84 -2.94547
64 84 -3.30242
65 84 -3.57359
66 84 -3.61916
67 84 -3.57998
68 84 -3.50514
69 84 -3.42105
70 84 -3.2147
71 84 -3.00622
72 84 -2.85314
73 84 -2.73778
74 84 -2.72959
75 84 -2.77551
76 84 -2.88503
77 84 -3.088
78 84 -3.43124
79 84 -3.93533
80 84 -4.62313
81 84 -5.35186
82 84 -6.09854
83 84 -6.84655
84 84 -7.56357
85 84 -8.3144
86 84 -9.05253
87 84 -9.86571
88 84 -10.7582
89 84 -11.7818
90 84 -12.9017
91 84 -14.1514
92 84 -15.664
93 84 -17.954
94 84 -24.7524
95 84 -51.7467
96 84 -51.7467
97 84 -51.7467
98 84 -51.7467
99 84 -51.7467
100 84 -51.7467
101 84 -51.7467
102 84 -51.7467
103 84 -51.7467
104 84 -51.7467
105 84 -51.7467
106 84 -51.7467
107 84 -51.7467
108 84 -51.7467
109 84 -51.7467
110 84 -51.7467
111 84 -51.7467
112 84 -51.7467
113 84 -51.7467
114 84 -51.7467
115 84 -51.7467
116 84 -51.7467
117 84 -51.7467
118 84 -51.7467
119 84 -51.7467
0 85 -51.7467
1 85 -51.7467
2 85 -51.7467
3 85 -51.7467
4 85 -51.7467
5 85 -51.7467
6 85 -51.7467
7 85 -51.7467
8 85 -51.7467
9 85 -51.7467
10 85 -51.7467
11 85 -51.7467
12 85 -51.7467
13 85 -51.7467
14 85 -51.7467
15 85 -51.7467
16 85 -51.7467
17 85 -51.7467
18 85 -51.7467
19 85 -51.7467
20 85 -51.7467
21 85 -51.7467
22 85 -51.7467
23 85 -51.7467
24 85 -51.7467
25 85 -51.7467
26 85 -51.7467
27 85 -51.7467
28 85 -32.6241
29 85 -29.5923
30 85 -25.5026
31 85 -22.1567
32 85 -19.609
33 85 -17.544
34 85 -15.7518
35 85 -13.6613
36 85 -12.6078
37 85 -11.637
38 85 -10.7589
39 85 -9.96066
40 85 -9.22042
41 85 -8.58921
42 85 -8.0096
43 85 -7.47448
44 85 -7.01595
45 85 -6.61416
46 85 -6.25918
47 85 -5.90005
48 85 -5.51141
49 85 -5.11463
50 85 -4.70212
51 85 -4.27033
52 85 -3.83549
53 85 -3.39405
54 85 -2.97222
55 85 -2.65615
56 85 -2.42236
57 85 -2.26189
58 85 -2.17966
59 85 -2.16041
60 85 -2.2624
61 85 -2.45452
62 85 -2.7504
63 85 -3.16158
64 85 -3.60501
65 85 -3.87199
66 85 -3.98003
67 85 -3.97602
68 85 -3.87512
69 85 -3.7397
70 85 -3.50912
71 85 -3.29701
72 85 -3.13137
73 85 -2.97414
74 85 -2.88288
75 85 -2.87376
76 85 -2.95954
77 85 -3.14762
78 85 -3.48515
79 85 -3.99558
80 85 -4.64511
81 85 -5.35252
82 85 -6.06956
83 85 -6.77561
84 85 -7.50142
85 85 -8.26079
86 85 -9.04155
87 85 -9.87236
88 85 -10.7961
89 85 -11.8448
90 85 -13.0053
91 85 -14.3147
92 85 -15.9837
93 85 -18.4785
94 85 -26.4601
95 85 -51.7467
96 85 -51.7467
97 85 -51.7467
98 85 -51.7467
99 85 -51.7467
100 85 -51.7467
101 85 -51.7467
102 85 -51.7467
103 85 -51.7467
104 85 -51.7467
105 85 -51.7467
106 85 -51.7467
107 85 -51.7467
108 85 -51.7467
109 85 -51.7467
110 85 -51.7467
111 85 -51.7467
112 85 -51.7467
113 85 -51.7467
114 85 -51.7467
115 85 -51.7467
116 85 -51.7467
117 85 -51.7467
118 85 -51.7467
119 85 -51.7467
0 86 -51.7467
1 86 -51.7467
2 86 -51.7467
3 86 -51.7467
4 86 -51.7467
5 86 -51.7467
6 86 -51.7467
7 86 -51.7467
8 86 -51.7467
9 86 -51.7467
10 86 -51.7467
11 86 -51.7467
12 86 -51.7467
13 86 -51.7467
14 86 -51.7467
15 86 -51.7467
16 86 -51.7467
17 86 -51.7467
18 86 -51.7467
19 86 -51.7467
20 86 -51.7467
21 86 -51.7467
22 86 -51.7467
23 86 -51.7467
24 86 -51.7467
25 86 -51.7467
26 86 -51.7467
27 86 -51.7467
28 86 -39.9987
29 86 -32.9897
30 86 -26.9182
31 86 -23.4058
32 86 -20.5877
33 86 -18.3156
34 86 -16.4629
35 86 -14.1498
36 86 -13.0328
37 86 -12.0261
38 86 -11.1294
39 86 -10.3008
40 86 -9.52846
41 86 -8.86544
42 86 -8.27047
43 86 -7.72615
44 86 -7.24647
45 86 -6.83778
46 86 -6.48099
47 86 -6.09638
48 86 -5.69261
49 86 -5.27644
50 86 -4.83361
51 86 -4.3811
52 86 -3.91478
53 86 -3.44757
54 86 -3.038
55 86 -2.69457
56 86 -2.44152
57 86 -2.26406
58 86 -2.14853
59 86 -2.12093
60 86 -2.23365
61 86 -2.42396
62 86 -2.77157
63 86 -3.27069
64 86 -3.70332
65 86 -3.95536
66 86 -4.09378
67 86 -4.14901
68 86 -4.03577
69 86 -3.80764
70 86 -3.59655
71 86 -3.39607
72 86 -3.22323
73 86 -3.09802
74 86 -2.98587
75 86 -2.95341
76 86 -3.00936
77 86 -3.19168
78 86 -3.51387
79 86 -4.01058
80 86 -4.64529
81 86 -5.31196
82 86 -6.00596
83 86 -6.69666
84 86 -7.43202
85 86 -8.18866
86 86 -9.0086
87 86 -9.86467
88 86 -10.7982
89 86 -11.8589
90 86 -13.0634
91 86 -14.3721
92 86 -16.2196
93 86 -19.0614
94 86 -28.0777
95 86 -51.7467
96 86 -51.7467
97 86 -51.7467
98 86 -51.7467
99 86 -51.7467
100 86 -51.7467
101 86 -51.7467
102 86 -51.7467
103 86 -51.7467
104 86 -51.7467
105 86 -51.7467
106 86 -51.7467
107 86 -51.7467
108 86 -51.7467
109 86 -51.7467
110 86 -51.7467
111 86 -51.7467
112 86 -51.7467
113 86 -51.7467
114 86 -51.7467
115 86 -51.7467
116 86 -51.7467
117 86 -51.7467
118 86 -51.7467
119 86 -51.7467
0 87 -51.7467
1 87 -51.7467
2 87 -51.7467
3 87 -51.7467
4 87 -51.7467
5 87 -51.7467
6 87 -51.7467
7 87 -51.7467
8 87 -51.7467
9 87 -51.7467
10 87 -51.7467
11 87 -51.7467
12 87 -51.7467
13 87 -51.7467
14 87 -51.7467
15 87 -51.7467
16 87 -51.7467
17 87 -51.7467
18 87 -51.7467
19 87 -51.7467
20 87 -51.7467
21 87 -51.7467
22 87 -51.7467
23 87 -51.7467
24 87 -51.7467
25 87 -51.7467
26 87 -51.7467
27 87 -51.7467
28 87 -47.785
29 87 -31.2887
30 87 -28.5745
31 87 -24.8403
32 87 -21.655
33 87 -19.1254
34 87 -17.1086
35 87 -15.4028
36 87 -13.4853
37 87 -12.4266
38 87 -11.4787
39 87 -10.6004
40 87 -9.80307
41 87 -9.10827
42 87 -8.49016
43 87 -7.91613
44 87 -7.40731
45 87 -6.98564
46 87 -6.6045
47 87 -6.20134
48 87 -5.78043
49 87 -5.33568
50 87 -4.86448
51 87 -4.39901
52 87 -3.89059
53 87 -3.42228
54 87 -3.01747
55 87 -2.68835
56 87 -2.39435
57 87 -2.19956
58 87 -2.06464
59 87 -2.01092
60 87 -2.07184
61 87 -2.24235
62 87 -2.61427
63 87 -3.14052
64 87 -3.53526
65 87 -3.80469
66 87 -3.93371
67 87 -3.97445
68 87 -3.89394
69 87 -3.69978
70 87 -3.48609
71 87 -3.28595
72 87 -3.1091
73 87 -2.99262
74 87 -2.90902
75 87 -2.88672
76 87 -2.96657
77 87 -3.15047
78 87 -3.46566
79 87 -3.94203
80 87 -4.56355
81 87 -5.22047
82 87 -5.87448
83 87 -6.58933
84 87 -7.32206
85 87 -8.1245
86 87 -8.94937
87 87 -9.8298
88 87 -10.7757
89 87 -11.8329
90 87 -13.0489
91 87 -14.4162
92 87 -16.3945
93 87 -19.5867
94 87 -29.7635
95 87 -51.7467
96 87 -51.7467
97 87 -51.7467
98 87 -51.7467
99 87 -51.7467
100 87 -51.7467
101 87 -51.7467
102 87 -51.7467
103 87 -51.7467
104 87 -51.7467
105 87 -51.7467
106 87 -51.7467
107 87 -51.7467
108 87 -51.7467
109 87 -51.7467
110 87 -51.7467
111 87 -51.7467
112 87 -51.7467
113 87 -51.7467
114 87 -51.7467
115 87 -51.7467
116 87 -51.7467
117 87 -51.7467
118 87 -51.7467
119 87 -51.7467
0 88 -51.7467
1 88 -51.7467
2 88 -51.7467
3 88 -51.7467
4 88 -51.7467
5 88 -51.7467
6 88 -51.7467
7 88 -51.7467
8 88 -51.7467
9 88 -51.7467
10 88 -51.7467
11 88 -51.7467
12 88 -51.7467
13 88 -51.7467
14 88 -51.7467
15 88 -51.7467
16 88 -51.7467
17 88 -51.7467
18 88 -51.7467
19 88 -51.7467
20 88 -51.7467
21 88 -51.7467
22 88 -51.7467
23 88 -51.7467
24 88 -51.7467
25 88 -51.7467
26 88 -51.7467
27 88 -51.7467
28 88 -51.7467
29 88 -35.6451
30 88 -31.1248
31 88 -26.3673
32 88 -22.6422
33 88 -19.924
34 88 -17.752
35 88 -15.9168
36 88 -13.889
37 88 -12.8081
38 88 -11.8095
39 88 -10.8868
40 88 -10.0462
41 88 -9.31541
42 88 -8.64156
43 88 -8.05256
44 88 -7.52959
45 88 -7.08804
46 88 -6.6556
47 88 -6.22584
48 88 -5.77889
49 88 -5.30511
50 88 -4.8022
51 88 -4.307
52 88 -3.79254
53 88 -3.32767
54 88 -2.92884
55 88 -2.58552
56 88 -2.29815
57 88 -2.0568
58 88 -1.8706
59 88 -1.77104
60 88 -1.80368
61 88 -1.9605
62 88 -2.27616
63 88 -2.76555
64 88 -3.16815
65 88 -3.3991
66 88 -3.45869
67 88 -3.50718
68 88 -3.49793
69 88 -3.39416
70 88 -3.19553
71 88 -2.98068
72 88 -2.8119
73 88 -2.69569
74 88 -2.64916
75 88 -2.68656
76 88 -2.8238
77 88 -3.02381
78 88 -3.35171
79 88 -3.82955
80 88 -4.42904
81 88 -5.07274
82 88 -5.74378
83 88 -6.44134
84 88 -7.20016
85 88 -8.02081
86 88 -8.85561
87 88 -9.7799
88 88 -10.7136
89 88 -11.8013
90 88 -12.9911
91 88 -14.3869
92 88 -16.4131
93 88 -19.6616
94 88 -27.5637
95 88 -51.7467
96 88 -51.7467
97 88 -51.7467
98 88 -51.7467
99 88 -51.7467
100 88 -51.7467
101 88 -51.7467
102 88 -51.7467
103 88 -51.7467
104 88 -51.7467
105 88 -51.7467
106 88 -51.7467
107 88 -51.7467
108 88 -51.7467
109 88 -51.7467
110 88 -51.7467
111 88 -51.7467
112 88 -51.7467
113 88 -51.7467
114 88 -51.7467
115 88 -51.7467
116 88 -51.7467
117 88 -51.7467
118 88 -51.7467
119 88 -51.7467
0 89 -51.7467
1 89 -51.7467
2 89 -51.7467
3 89 -51.7467
4 89 -51.7467
5 89 -51.7467
6 89 -51.7467
7 89 -51.7467
8 89 -51.7467
9 89 -51.7467
10 89 -51.7467
11 89 -51.7467
12 89 -51.7467
13 89 -51.7467
14 89 -51.7467
15 89 -51.7467
16 89 -51.7467
17 89 -51.7467
18 89 -51.7467
19 89 -51.7467
20 89 -51.7467
21 89 -51.7467
22 89 -51.7467
23 89 -51.7467
24 89 -51.7467
25 89 -51.7467
26 89 -51.7467
27 89 -51.7467
28 89 -51.7467
29 89 -40.0285
30 89 -33.9339
31 89 -27.3432
32 89 -23.5919
33 89 -20.6741
34 89 -18.3556
35 89 -16.3957
36 89 -14.2241
37 89 -13.1073
38 89 -12.085
39 89 -11.1243
40 89 -10.2423
41 89 -9.46557
42 89 -8.7717
43 89 -8.15256
44 89 -7.58097
45 89 -7.11195
46 89 -6.65585
47 89 -6.1907
48 89 -5.70353
49 89 -5.20235
50 89 -4.65166
51 89 -4.13504
52 89 -3.63778
53 89 -3.18803
54 89 -2.78397
55 89 -2.41992
56 89 -2.12004
57 89 -1.8656
58 89 -1.64629
59 89 -1.49814
60 89 -1.46477
61 89 -1.57685
62 89 -1.84186
63 89 -2.23793
64 89 -2.67253
65 89 -2.92497
66 89 -2.96005
67 89 -2.89562
68 89 -2.8535
69 89 -2.79448
70 89 -2.65726
71 89 -2.4821
72 89 -2.35815
73 89 -2.29553
74 89 -2.30956
75 89 -2.41879
76 89 -2.59409
77 89 -2.83777
78 89 -3.16074
79 89 -3.6465
80 89 -4.24331
81 89 -4.8712
82 89 -5.55434
83 89 -6.27474
84 89 -7.03941
85 89 -7.87559
86 89 -8.74402
87 89 -9.68512
88 89 -10.6559
89 89 -11.7112
90 89 -12.9146
91 89 -14.3735
92 89 -16.3908
93 89 -22.2393
94 89 -51.7467
95 89 -51.7467
96 89 -51.7467
97 89 -51.7467
98 89 -51.7467
99 89 -51.7467
100 89 -51.7467
101 89 -51.7467
102 89 -51.7467
103 89 -51.7467
104 89 -51.7467
105 89 -51.7467
106 89 -51.7467
107 89 -51.7467
108 89 -51.7467
109 89 -51.7467
110 89 -51.7467
111 89 -51.7467
112 89 -51.7467
113 89 -51.7467
114 89 -51.7467
115 89 -51.7467
116 89 -51.7467
117 89 -51.7467
118 89 -51.7467
119 89 -51.7467
0 90 -51.7467
1 90 -51.7467
2 90 -51.7467
3 90 -51.7467
4 90 -51.7467
5 90 -51.7467
6 90 -51.7467
7 90 -51.7467
8 90 -51.7467
9 90 -51.7467
10 90 -51.7467
11 90 -51.7467
12 90 -51.7467
13 90 -51.7467
14 90 -51.7467
15 90 -51.7467
16 90 -51.7467
17 90 -51.7467
18 90 -51.7467
19 90 -51.7467
20 90 -51.7467
21 90 -51.7467
22 90 -51.7467
23 90 -51.7467
24 90 -51.7467
25 90 -51.7467
26 90 -51.7467
27 90 -51.7467
28 90 -51.7467
29 90 -47.8459
30 90 -31.3807
31 90 -28.6132
32 90 -24.6937
33 90 -21.3936
34 90 -18.8621
35 90 -16.882
36 90 -14.4983
37 90 -13.3498
38 90 -12.2881
39 90 -11.286
40 90 -10.3672
41 90 -9.57298
42 90 -8.83664
43 90 -8.18593
44 90 -7.58046
45 90 -7.08296
46 90 -6.5808
47 90 -6.06083
48 90 -5.54782
49 90 -4.98954
50 90 -4.40257
51 90 -3.90455
52 90 -3.43945
53 90 -3.01136
54 90 -2.60463
55 90 -2.25011
56 90 -1.93244
57 90 -1.65598
58 90 -1.40491
59 90 -1.22396
60 90 -1.1584
61 90 -1.21567
62 90 -1.35055
63 90 -1.63768
64 90 -2.01941
65 90 -2.30286
66 90 -2.42276
67 90 -2.35905
68 90 -2.27179
69 90 -2.20676
70 90 -2.12459
71 90 -1.99388
72 90 -1.86328
73 90 -1.85646
74 90 -1.90636
75 90 -2.07466
76 90 -2.29683
77 90 -2.57527
78 90 -2.92594
79 90 -3.40535
80 90 -4.00967
81 90 -4.62978
82 90 -5.33601
83 90 -6.0758
84 90 -6.84372
85 90 -7.69306
86 90 -8.55497
87 90 -9.51755
88 90 -10.5158
89 90 -11.591
90 90 -12.8753
91 90 -14.5194
92 90 -16.9017
93 90 -24.1282
94 90 -51.7467
95 90 -51.7467
96 90 -51.7467
97 90 -51.7467
98 90 -51.7467
99 90 -51.7467
100 90 -51.7467
101 90 -51.7467
102 90 -51.7467
103 90 -51.7467
104 90 -51.7467
105 90 -51.7467
106 90 -51.7467
107 90 -51.7467
108 90 -51.7467
109 90 -51.7467
110 90 -51.7467
111 90 -51.7467
112 90 -51.7467
113 90 -51.7467
114 90 -51.7467
115 90 -51.7467
116 90 -51.7467
117 90 -51.7467
118 90 -51.7467
119 90 -51.7467
0 91 -51.7467
1 91 -51.7467
2 91 -51.7467
3 91 -51.7467
4 91 -51.7467
5 91 -51.7467
6 91 -51.7467
7 91 -51.7467
8 91 -51.7467
9 91 -51.7467
10 91 -51.7467
11 91 -51.7467
12 91 -51.7467
13 91 -51.7467
14 91 -51.7467
15 91 -51.7467
16 91 -51.7467
17 91 -51.7467
18 91 -51.7467
19 91 -51.7467
20 91 -51.7467
21 91 -51.7467
22 91 -51.7467
23 91 -51.7467
24 91 -51.7467
25 91 -51.7467
26 91 -51.7467
27 91 -51.7467
28 91 -51.7467
29 91 -51.7467
30 91 -35.2686
31 91 -30.7811
32 91 -25.9304
33 91 -22.0456
34 91 -19.3141
35 91 -17.2141
36 91 -15.451
37 91 -13.4936
38 91 -12.4369
39 91 -11.4262
40 91 -10.4833
41 91 -9.62872
42 91 -8.86338
43 91 -8.15653
44 91 -7.53133
45 91 -6.98736
46 91 -6.44151
47 91 -5.8794
48 91 -5.29035
49 91 -4.71401
50 91 -4.13759
51 91 -3.64831
52 91 -3.22153
53 91 -2.8079
54 91 -2.41327
55 91 -2.04786
56 91 -1.72274
57 91 -1.41861
58 91 -1.16419
59 91 -0.966423
60 91 -0.859151
61 91 -0.850031
62 91 -0.941657
63 91 -1.14859
64 91 -1.43823
65 91 -1.68382
66 91 -1.83077
67 91 -1.86789
68 91 -1.8034
69 91 -1.74391
70 91 -1.70865
71 91 -1.59325
72 91 -1.46464
73 91 -1.42188
74 91 -1.47482
75 91 -1.6318
76 91 -1.90031
77 91 -2.21651
78 91 -2.60362
79 91 -3.09774
80 91 -3.70321
81 91 -4.35555
82 91 -5.0592
83 91 -5.84056
84 91 -6.62978
85 91 -7.47639
86 91 -8.3422
87 91 -9.28877
88 91 -10.3087
89 91 -11.4354
90 91 -12.819
91 91 -14.7433
92 91 -17.9485
93 91 -27.9324
94 91 -51.7467
95 91 -51.7467
96 91 -51.7467
97 91 -51.7467
98 91 -51.7467
99 91 -51.7467
100 91 -51.7467
101 91 -51.7467
102 91 -51.7467
103 91 -51.7467
104 91 -51.7467
105 91 -51.7467
106 91 -51.7467
107 91 -51.7467
108 91 -51.7467
109 91 -51.7467
110 91 -51.7467
111 91 -51.7467
112 91 -51.7467
113 91 -51.7467
114 91 -51.7467
115 91 -51.7467
116 91 -51.7467
117 91 -51.7467
118 91 -51.7467
119 91 -51.7467
0 92 -51.7467
1 92 -51.7467
2 92 -51.7467
3 92 -51.7467
4 92 -51.7467
5 92 -51.7467
6 92 -51.7467
7 92 -51.7467
8 92 -51.7467
9 92 -51.7467
10 92 -51.7467
11 92 -51.7467
12 92 -51.7467
13 92 -51.7467
14 92 -51.7467
15 92 -51.7467
16 92 -51.7467
17 92 -51.7467
18 92 -51.7467
19 92 -51.7467
20 92 -51.7467
21 92 -51.7467
22 92 -51.7467
23 92 -51.7467
24 92 -51.7467
25 92 -51.7467
26 92 -51.7467
27 92 -51.7467
28 92 -51.7467
29 92 -51.7467
30 92 -39.2654
31 92 -33.468
32 92 -26.7894
33 92 -22.7217
34 92 -19.7252
35 92 -17.4823
36 92 -15.6329
37 92 -13.5721
38 92 -12.4992
39 92 -11.4497
40 92 -10.5136
41 92 -9.63395
42 92 -8.82845
43 92 -8.0919
44 92 -7.42497
45 92 -6.8316
46 92 -6.2316
47 92 -5.62862
48 92 -5.02595
49 92 -4.43121
50 92 -3.87242
51 92 -3.42847
52 92 -3.00049
53 92 -2.58449
54 92 -2.18539
55 92 -1.81982
56 92 -1.47847
57 92 -1.18156
58 92 -0.901751
59 92 -0.69423
60 92 -0.55503
61 92 -0.512282
62 92 -0.565933
63 92 -0.713555
64 92 -0.958457
65 92 -1.16461
66 92 -1.2835
67 92 -1.34305
68 92 -1.36284
69 92 -1.35152
70 92 -1.32478
71 92 -1.24193
72 92 -1.17084
73 92 -1.09367
74 92 -1.12865
75 92 -1.26004
76 92 -1.47468
77 92 -1.78948
78 92 -2.20206
79 92 -2.72777
80 92 -3.38389
81 92 -4.05952
82 92 -4.77798
83 92 -5.53908
84 92 -6.34749
85 92 -7.19738
86 92 -8.06034
87 92 -8.9944
88 92 -10.0314
89 92 -11.1829
90 92 -12.5463
91 92 -14.4976
92 92 -18.0291
93 92 -28.5536
94 92 -51.7467
95 92 -51.7467
96 92 -51.7467
97 92 -51.7467
98 92 -51.7467
99 92 -51.7467
100 92 -51.7467
101 92 -51.7467
102 92 -51.7467
103 92 -51.7467
104 92 -51.7467
105 92 -51.7467
106 92 -51.7467
107 92 -51.7467
108 92 -51.7467
109 92 -51.7467
110 92 -51.7467
111 92 -51.7467
112 92 -51.7467
113 92 -51.7467
114 92 -51.7467
115 92 -51.7467
116 92 -51.7467
117 92 -51.7467
118 92 -51.7467
119 92 -51.7467
0 93 -51.7467
1 93 -51.7467
2 93 -51.7467
3 93 -51.7467
4 93 -51.7467
5 93 -51.7467
6 93 -51.7467
7 93 -51.7467
8 93 -51.7467
9 93 -51.7467
10 93 -51.7467
11 93 -51.7467
12 93 -51.7467
13 93 -51.7467
14 93 -51.7467
15 93 -51.7467
16 93 -51.7467
17 93 -51.7467
18 93 -51.7467
19 93 -51.7467
20 93 -51.7467
21 93 -51.7467
22 93 -51.7467
23 93 -51.7467
24 93 -51.7467
25 93 -51.7467
26 93 -51.7467
27 93 -51.7467
28 93 -51.7467
29 93 -51.7467
30 93 -47.4086
31 93 -31.2692
32 93 -27.955
33 93 -23.5854
34 93 -20.1357
35 93 -17.6827
36 93 -15.825
37 93 -13.6112
38 93 -12.5118
39 93 -11.4373
40 93 -10.4692
41 93 -9.6004
42 93 -8.75047
43 93 -7.97187
44 93 -7.25592
45 93 -6.60325
46 93 -5.95255
47 93 -5.34163
48 93 -4.74605
49 93 -4.15225
50 93 -3.62558
51 93 -3.17597
52 93 -2.7277
53 93 -2.3033
54 93 -1.93473
55 93 -1.5548
56 93 -1.22158
57 93 -0.921421
58 93 -0.633719
59 93 -0.413627
60 93 -0.260994
61 93 -0.200509
62 93 -0.210045
63 93 -0.339542
64 93 -0.546552
65 93 -0.710875
66 93 -0.816162
67 93 -0.876234
68 93 -0.913966
69 93 -0.950045
70 93 -0.971303
71 93 -0.936263
72 93 -0.895618
73 93 -0.815152
74 93 -0.819447
75 93 -0.915335
76 93 -1.09747
77 93 -1.41016
78 93 -1.82813
79 93 -2.35802
80 93 -3.01913
81 93 -3.72048
82 93 -4.4629
83 93 -5.23139
84 93 -6.04692
85 93 -6.87195
86 93 -7.74867
87 93 -8.65988
88 93 -9.69511
89 93 -10.7745
90 93 -12.0631
91 93 -13.8693
92 93 -17.2004
93 93 -25.6508
94 93 -51.7467
95 93 -51.7467
96 93 -51.7467
97 93 -51.7467
98 93 -51.7467
99 93 -51.7467
100 93 -51.7467
101 93 -51.7467
102 93 -51.7467
103 93 -51.7467
104 93 -51.7467
105 93 -51.7467
106 93 -51.7467
107 93 -51.7467
108 93 -51.7467
109 93 -51.7467
110 93 -51.7467
111 93 -51.7467
112 93 -51.7467
113 93 -51.7467
114 93 -51.7467
115 93 -51.7467
116 93 -51.7467
117 93 -51.7467
118 93 -51.7467
119 93 -51.7467
0 94 -51.7467
1 94 -51.7467
2 94 -51.7467
3 94 -51.7467
4 94 -51.7467
5 94 -51.7467
6 94 -51.7467
7 94 -51.7467
8 94 -51.7467
9 94 -51.7467
10 94 -51.7467
11 94 -51.7467
12 94 -51.7467
13 94 -51.7467
14 94 -51.7467
15 94 -51.7467
16 94 -51.7467
17 94 -51.7467
18 94 -51.7467
19 94 -51.7467
20 94 -51.7467
21 94 -51.7467
22 94 -51.7467
23 94 -51.7467
24 94 -51.7467
25 94 -51.7467
26 94 -51.7467
27 94 -51.7467
28 94 -51.7467
29 94 -51.7467
30 94 -51.7467
31 94 -35.4152
32 94 -29.9753
33 94 -24.6049
34 94 -20.5094
35 94 -17.8347
36 94 -15.8849
37 94 -14.2842
38 94 -12.4868
39 94 -11.4138
40 94 -10.3991
41 94 -9.47444
42 94 -8.62005
43 94 -7.81434
44 94 -7.07217
45 94 -6.36913
46 94 -5.71303
47 94 -5.07258
48 94 -4.43879
49 94 -3.87108
50 94 -3.33657
51 94 -2.86494
52 94 -2.40762
53 94 -1.98629
54 94 -1.61771
55 94 -1.26215
56 94 -0.938941
57 94 -0.644017
58 94 -0.370088
59 94 -0.138137
60 94 0.0159728
61 94 0.0796365
62 94 0.101643
63 94 -0.000568158
64 94 -0.168499
65 94 -0.29569
66 94 -0.386086
67 94 -0.441205
68 94 -0.515737
69 94 -0.574848
70 94 -0.611437
71 94 -0.621253
72 94 -0.627073
73 94 -0.590831
74 94 -0.545004
75 94 -0.594781
76 94 -0.77569
77 94 -1.05701
78 94 -1.46411
79 94 -2.00048
80 94 -2.65494
81 94 -3.35488
82 94 -4.12323
83 94 -4.93145
84 94 -5.77541
85 94 -6.59729
86 94 -7.46103
87 94 -8.35019
88 94 -9.30915
89 94 -10.3149
90 94 -11.4913
91 94 -13.1303
92 94 -16.0934
93 94 -22.0906
94 94 -51.7467
95 94 -51.7467
96 94 -51.7467
97 94 -51.7467
98 94 -51.7467
99 94 -51.7467
100 94 -51.7467
101 94 -51.7467
102 94 -51.7467
103 94 -51.7467
104 94 -51.7467
105 94 -51.7467
106 94 -51.7467
107 94 -51.7467
108 94 -51.7467
109 94 -51.7467
110 94 -51.7467
111 94 -51.7467
112 94 -51.7467
113 94 -51.7467
114 94 -51.7467
115 94 -51.7467
116 94 -51.7467
117 94 -51.7467
118 94 -51.7467
119 94 -51.7467
0 95 -51.7467
1 95 -51.7467
2 95 -51.7467
3 95 -51.7467
4 95 -51.7467
5 95 -51.7467
6 95 -51.7467
7 95 -51.7467
8 95 -51.7467
9 95 -51.7467
10 95 -51.7467
11 95 -51.7467
12 95 -51.7467
13 95 -51.7467
14 95 -51.7467
15 95 -51.7467
16 95 -51.7467
17 95 -51.7467
18 95 -51.7467
19 95 -51.7467
20 95 -51.7467
21 95 -51.7467
22 95 -51.7467
23 95 -51.7467
24 95 -51.7467
25 95 -51.7467
26 95 -51.7467
27 95 -51.7467
28 95 -51.7467
29 95 -51.7467
30 95 -51.7467
31 95 -38.1798
32 95 -32.4635
33 95 -25.2808
34 95 -20.8973
35 95 -17.961
36 95 -15.9242
37 95 -14.2635
38 95 -12.4039
39 95 -11.3065
40 95 -10.277
41 95 -9.33881
42 95 -8.43743
43 95 -7.60088
44 95 -6.84358
45 95 -6.12661
46 95 -5.43957
47 95 -4.76809
48 95 -4.14509
49 95 -3.5246
50 95 -2.96616
51 95 -2.46131
52 95 -1.9999
53 95 -1.58485
54 95 -1.24926
55 95 -0.927735
56 95 -0.640473
57 95 -0.363142
58 95 -0.0935897
59 95 0.135043
60 95 0.292004
61 95 0.370662
62 95 0.396304
63 95 0.329235
64 95 0.185766
65 95 0.0984341
66 95 0.00135425
67 95 -0.0780874
68 95 -0.15503
69 95 -0.217032
70 95 -0.287703
71 95 -0.325517
72 95 -0.315776
73 95 -0.323926
74 95 -0.286223
75 95 -0.323336
76 95 -0.447053
77 95 -0.722381
78 95 -1.10978
79 95 -1.65348
80 95 -2.30259
81 95 -3.02321
82 95 -3.79969
83 95 -4.62782
84 95 -5.47289
85 95 -6.32015
86 95 -7.14094
87 95 -7.98728
88 95 -8.8654
89 95 -9.8079
90 95 -10.9627
91 95 -12.4691
92 95 -19.9585
93 95 -51.7467
94 95 -51.7467
95 95 -51.7467
96 95 -51.7467
97 95 -51.7467
98 95 -51.7467
99 95 -51.7467
100 95 -51.7467
101 95 -51.7467
102 95 -51.7467
103 95 -51.7467
104 95 -51.7467
105 95 -51.7467
106 95 -51.7467
107 95 -51.7467
108 95 -51.7467
109 95 -51.7467
110 95 -51.7467
111 95 -51.7467
112 95 -51.7467
113 95 -51.7467
114 95 -51.7467
115 95 -51.7467
116 95 -51.7467
117 95 -51.7467
118 95 -51.7467
119 95 -51.7467
0 96 -51.7467
1 96 -51.7467
2 96 -51.7467
3 96 -51.7467
4 96 -51.7467
5 96 -51.7467
6 96 -51.7467
7 96 -51.7467
8 96 -51.7467
9 96 -51.7467
10 96 -51.7467
11 96 -51.7467
12 96 -51.7467
13 96 -51.7467
14 96 -51.7467
15 96 -51.7467
16 96 -51.7467
17 96 -51.7467
18 96 -51.7467
19 96 -51.7467
20 96 -51.7467
21 96 -51.7467
22 96 -51.7467
23 96 -51.7467
24 96 -51.7467
25 96 -51.7467
26 96 -51.7467
27 96 -51.7467
28 96 -51.7467
29 96 -51.7467
30 96 -51.7467
31 96 -46.2515
32 96 -30.0407
33 96 -25.8766
34 96 -21.2182
35 96 -18.1877
36 96 -15.9558
37 96 -14.1942
38 96 -12.2516
39 96 -11.1387
40 96 -10.0989
41 96 -9.14091
42 96 -8.22839
43 96 -7.38469
44 96 -6.60941
45 96 -5.88594
46 96 -5.14868
47 96 -4.48708
48 96 -3.73011
49 96 -3.08512
50 96 -2.4928
51 96 -1.97306
52 96 -1.52009
53 96 -1.12703
54 96 -0.818771
55 96 -0.532203
56 96 -0.292821
57 96 -0.0620975
58 96 0.169097
59 96 0.390583
60 96 0.555258
61 96 0.644041
62 96 0.685361
63 96 0.643116
64 96 0.542114
65 96 0.457332
66 96 0.372133
67 96 0.302407
68 96 0.232593
69 96 0.149978
70 96 0.0895441
71 96 0.00933361
72 96 -0.00524023
73 96 -0.0107815
74 96 0.0187108
75 96 -0.0221997
76 96 -0.147533
77 96 -0.396979
78 96 -0.762973
79 96 -1.3328
80 96 -1.98742
81 96 -2.70182
82 96 -3.49015
83 96 -4.35103
84 96 -5.2074
85 96 -6.00348
86 96 -6.74294
87 96 -7.50162
88 96 -8.29248
89 96 -9.17262
90 96 -10.3536
91 96 -12.4892
92 96 -22.9958
93 96 -51.7467
94 96 -51.7467
95 96 -51.7467
96 96 -51.7467
97 96 -51.7467
98 96 -51.7467
99 96 -51.7467
100 96 -51.7467
101 96 -51.7467
102 96 -51.7467
103 96 -51.7467
104 96 -51.7467
105 96 -51.7467
106 96 -51.7467
107 96 -51.7467
108 96 -51.7467
109 96 -51.7467
110 96 -51.7467
111 96 -51.7467
112 96 -51.7467
113 96 -51.7467
114 96 -51.7467
115 96 -51.7467
116 96 -51.7467
117 96 -51.7467
118 96 -51.7467
119 96 -51.7467
0 97 -51.7467
1 97 -51.7467
2 97 -51.7467
3 97 -51.7467
4 97 -51.7467
5 97 -51.7467
6 97 -51.7467
7 97 -51.7467
8 97 -51.7467
9 97 -51.7467
10 97 -51.7467
11 97 -51.7467
12 97 -51.7467
13 97 -51.7467
14 97 -51.7467
15 97 -51.7467
16 97 -51.7467
17 97 -51.7467
18 97 -51.7467
19 97 -51.7467
20 97 -51.7467
21 97 -51.7467
22 97 -51.7467
23 97 -51.7467
24 97 -51.7467
25 97 -51.7467
26 97 -51.7467
27 97 -51.7467
28 97 -51.7467
29 97 -51.7467
30 97 -51.7467
31 97 -51.7467
32 97 -32.6091
33 97 -24.7769
34 97 -22.0083
35 97 -18.5698
36 97 -16.0172
37 97 -14.1216
38 97 -12.0535
39 97 -10.9447
40 97 -9.87623
41 97 -8.90181
42 97 -7.98214
43 97 -7.14716
44 97 -6.36653
45 97 -5.58418
46 97 -4.87958
47 97 -4.03322
48 97 -3.20407
49 97 -2.49056
50 97 -1.90081
51 97 -1.35856
52 97 -0.927937
53 97 -0.574453
54 97 -0.311792
55 97 -0.0776287
56 97 0.155387
57 97 0.376193
58 97 0.599996
59 97 0.7856
60 97 0.937419
61 97 1.0279
62 97 1.04765
63 97 0.982623
64 97 0.897522
65 97 0.829399
66 97 0.738093
67 97 0.662874
68 97 0.604926
69 97 0.536621
70 97 0.468458
71 97 0.396938
72 97 0.338036
73 97 0.337184
74 97 0.366365
75 97 0.314977
76 97 0.163049
77 97 -0.0904114
78 97 -0.465481
79 97 -1.01927
80 97 -1.69189
81 97 -2.41582
82 97 -3.19448
83 97 -4.08164
84 97 -4.93405
85 97 -5.68426
86 97 -6.36684
87 97 -6.99537
88 97 -7.62485
89 97 -8.33631
90 97 -9.39005
91 97 -11.5988
92 97 -16.8695
93 97 -51.7467
94 97 -51.7467
95 97 -51.7467
96 97 -51.7467
97 97 -51.7467
98 97 -51.7467
99 97 -51.7467
100 97 -51.7467
101 97 -51.7467
102 97 -51.7467
103 97 -51.7467
104 97 -51.7467
105 97 -51.7467
106 97 -51.7467
107 97 -51.7467
108 97 -51.7467
109 97 -51.7467
110 97 -51.7467
111 97 -51.7467
112 97 -51.7467
113 97 -51.7467
114 97 -51.7467
115 97 -51.7467
116 97 -51.7467
117 97 -51.7467
118 97 -51.7467
119 97 -51.7467
0 98 -51.7467
1 98 -51.7467
2 98 -51.7467
3 98 -51.7467
4 98 -51.7467
5 98 -51.7467
6 98 -51.7467
7 98 -51.7467
8 98 -51.7467
9 98 -51.7467
10 98 -51.7467
11 98 -51.7467
12 98 -51.7467
13 98 -51.7467
14 98 -51.7467
15 98 -51.7467
16 98 -51.7467
17 98 -51.7467
18 98 -51.7467
19 98 -51.7467
20 98 -51.7467
21 98 -51.7467
22 98 -51.7467
23 98 -51.7467
24 98 -51.7467
25 98 -51.7467
26 98 -51.7467
27 98 -51.7467
28 98 -51.7467
29 98 -51.7467
30 98 -51.7467
31 98 -51.7467
32 98 -51.7467
33 98 -28.0807
34 98 -23.2575
35 98 -18.895
36 98 -16.1913
37 98 -14.09
38 98 -11.8783
39 98 -10.7366
40 98 -9.65158
41 98 -8.65698
42 98 -7.75008
43 98 -6.90738
44 98 -6.11636
45 98 -5.34109
46 98 -4.43216
47 98 -3.44307
48 98 -2.52562
49 98 -1.79221
50 98 -1.1687
51 98 -0.639579
52 98 -0.260608
53 98 0.0402491
54 98 0.325272
55 98 0.557969
56 98 0.744894
57 98 0.934946
58 98 1.14211
59 98 1.33175
60 98 1.42436
61 98 1.43207
62 98 1.42039
63 98 1.33799
64 98 1.25534
65 98 1.17488
66 98 1.10056
67 98 1.028
68 98 0.97809
69 98 0.919277
70 98 0.869214
71 98 0.802004
72 98 0.732389
73 98 0.711031
74 98 0.727613
75 98 0.668535
76 98 0.516326
77 98 0.254947
78 98 -0.147145
79 98 -0.681645
80 98 -1.36533
81 98 -2.11149
82 98 -2.91532
83 98 -3.81052
84 98 -4.71781
85 98 -5.47599
86 98 -6.08129
87 98 -6.57012
88 98 -6.92528
89 98 -7.36116
90 98 -8.06447
91 98 -13.4014
92 98 -51.7467
93 98 -51.7467
94 98 -51.7467
95 98 -51.7467
96 98 -51.7467
97 98 -51.7467
98 98 -51.7467
99 98 -51.7467
100 98 -51.7467
101 98 -51.7467
102 98 -51.7467
103 98 -51.7467
104 98 -51.7467
105 98 -51.7467
106 98 -51.7467
107 98 -51.7467
108 98 -51.7467
109 98 -51.7467
110 98 -51.7467
111 98 -51.7467
112 98 -51.7467
113 98 -51.7467
114 98 -51.7467
115 98 -51.7467
116 98 -51.7467
117 98 -51.7467
118 98 -51.7467
119 98 -51.7467
0 99 -51.7467
1 99 -51.7467
2 99 -51.7467
3 99 -51.7467
4 99 -51.7467
5 99 -51.7467
6 99 -51.7467
7 99 -51.7467
8 99 -51.7467
9 99 -51.7467
10 99 -51.7467
11 99 -51.7467
12 99 -51.7467
13 99 -51.7467
14 99 -51.7467
15 99 -51.7467
16 99 -51.7467
17 99 -51.7467
18 99 -51.7467
19 99 -51.7467
20 99 -51.7467
21 99 -51.7467
22 99 -51.7467
23 99 -51.7467
24 99 -51.7467
25 99 -51.7467
26 99 -51.7467
27 99 -51.7467
28 99 -51.7467
29 99 -51.7467
30 99 -51.7467
31 99 -51.7467
32 99 -51.7467
33 99 -30.6543
34 99 -22.0771
35 99 -19.7498
36 99 -16.5968
37 99 -14.0969
38 99 -11.6204
39 99 -10.4681
40 99 -9.35445
41 99 -8.37815
42 99 -7.48815
43 99 -6.67167
44 99 -5.8783
45 99 -4.95901
46 99 -3.80541
47 99 -2.65119
48 99 -1.74677
49 99 -0.931862
50 99 -0.245563
51 99 0.258313
52 99 0.656042
53 99 0.961608
54 99 1.20117
55 99 1.39714
56 99 1.56553
57 99 1.71398
58 99 1.83596
59 99 1.88387
60 99 1.92129
61 99 1.84746
62 99 1.7853
63 99 1.69736
64 99 1.62124
65 99 1.53378
66 99 1.46017
67 99 1.38651
68 99 1.3431
69 99 1.28774
70 99 1.24639
71 99 1.19547
72 99 1.1452
73 99 1.09899
74 99 1.12037
75 99 1.05933
76 99 0.896143
77 99 0.620337
78 99 0.198155
79 99 -0.358089
80 99 -1.0302
81 99 -1.78912
82 99 -2.65751
83 99 -3.60599
84 99 -4.52625
85 99 -5.36913
86 99 -5.93834
87 99 -6.18421
88 99 -6.19231
89 99 -6.22652
90 99 -6.87165
91 99 -15.8351
92 99 -51.7467
93 99 -51.7467
94 99 -51.7467
95 99 -51.7467
96 99 -51.7467
97 99 -51.7467
98 99 -51.7467
99 99 -51.7467
100 99 -51.7467
101 99 -51.7467
102 99 -51.7467
103 99 -51.7467
104 99 -51.7467
105 99 -51.7467
106 99 -51.7467
107 99 -51.7467
108 99 -51.7467
109 99 -51.7467
110 99 -51.7467
111 99 -51.7467
112 99 -51.7467
113 99 -51.7467
114 99 -51.7467
115 99 -51.7467
116 99 -51.7467
117 99 -51.7467
118 99 -51.7467
119 99 -51.7467
0 100 -51.7467
1 100 -51.7467
2 100 -51.7467
3 100 -51.7467
4 100 -51.7467
5 100 -51.7467
6 100 -51.7467
7 100 -51.7467
8 100 -51.7467
9 100 -51.7467
10 100 -51.7467
11 100 -51.7467
12 100 -51.7467
13 100 -51.7467
14 100 -51.7467
15 100 -51.7467
16 100 -51.7467
17 100 -51.7467
18 100 -51.7467
19 100 -51.7467
20 100 -51.7467
21 100 -51.7467
22 100 -51.7467
23 100 -51.7467
24 100 -51.7467
25 100 -51.7467
26 100 -51.7467
27 100 -51.7467
28 100 -51.7467
29 100 -51.7467
30 100 -51.7467
31 100 -51.7467
32 100 -51.7467
33 100 -51.7467
34 100 -25.3218
35 100 -21.3447
36 100 -17.1234
37 100 -14.0737
38 100 -11.38
39 100 -10.1936
40 100 -9.08016
41 100 -8.0941
42 100 -7.20028
43 100 -6.46171
44 100 -5.50126
45 100 -4.26194
46 100 -2.86238
47 100 -1.72639
48 100 -0.745742
49 100 0.0702138
50 100 0.730621
51 100 1.1802
52 100 1.53177
53 100 1.82129
54 100 2.02382
55 100 2.20518
56 100 2.33877
57 100 2.42131
58 100 2.46419
59 100 2.44925
60 100 2.41333
61 100 2.2952
62 100 2.18731
63 100 2.06644
64 100 1.96741
65 100 1.884
66 100 1.82841
67 100 1.76548
68 100 1.72317
69 100 1.66089
70 100 1.62443
71 100 1.58676
72 100 1.55012
73 100 1.5312
74 100 1.54613
75 100 1.4608
76 100 1.25564
77 100 0.942669
78 100 0.521472
79 100 -0.0589549
80 100 -0.73947
81 100 -1.49419
82 100 -2.39157
83 100 -3.38947
84 100 -4.43518
85 100 -5.33191
86 100 -5.92465
87 100 -6.09529
88 100 -5.99492
89 100 -5.82436
90 100 -5.85038
91 100 -9.13632
92 100 -51.7467
93 100 -51.7467
94 100 -51.7467
95 100 -51.7467
96 100 -51.7467
97 100 -51.7467
98 100 -51.7467
99 100 -51.7467
100 100 -51.7467
101 100 -51.7467
102 100 -51.7467
103 100 -51.7467
104 100 -51.7467
105 100 -51.7467
106 100 -51.7467
107 100 -51.7467
108 100 -51.7467
109 100 -51.7467
110 100 -51.7467
111 100 -51.7467
112 100 -51.7467
113 100 -51.7467
114 100 -51.7467
115 100 -51.7467
116 100 -51.7467
117 100 -51.7467
118 100 -51.7467
119 100 -51.7467
0 101 -51.7467
1 101 -51.7467
2 101 -51.7467
3 101 -51.7467
4 101 -51.7467
5 101 -51.7467
6 101 -51.7467
7 101 -51.7467
8 101 -51.7467
9 101 -51.7467
10 101 -51.7467
11 101 -51.7467
12 101 -51.7467
13 101 -51.7467
14 101 -51.7467
15 101 -51.7467
16 101 -51.7467
17 101 -51.7467
18 101 -51.7467
19 101 -51.7467
20 101 -51.7467
21 101 -51.7467
22 101 -51.7467
23 101 -51.7467
24 101 -51.7467
25 101 -51.7467
26 101 -51.7467
27 101 -51.7467
28 101 -51.7467
29 101 -51.7467
30 101 -51.7467
31 101 -51.7467
32 101 -51.7467
33 101 -51.7467
34 101 -29.289
35 101 -23.253
36 101 -17.0681
37 101 -13.994
38 101 -11.2277
39 101 -9.96286
40 101 -8.79017
41 101 -7.79681
42 101 -6.98112
43 101 -6.17086
44 101 -4.78814
45 101 -3.13556
46 101 -1.72008
47 101 -0.589194
48 101 0.303938
49 101 1.04334
50 101 1.6398
51 101 2.04966
52 101 2.36343
53 101 2.61303
54 101 2.7946
55 101 2.91625
56 101 2.98371
57 101 3.0073
58 101 2.97504
59 101 2.89204
60 101 2.77766
61 101 2.62707
62 101 2.48496
63 101 2.38448
64 101 2.2921
65 101 2.23375
66 101 2.19112
67 101 2.1362
68 101 2.08452
69 101 2.04746
70 101 2.01961
71 101 1.96869
72 101 1.96853
73 101 1.95217
74 101 1.93268
75 101 1.82117
76 101 1.60117
77 101 1.26069
78 101 0.785119
79 101 0.218113
80 101 -0.473711
81 101 -1.25935
82 101 -2.16308
83 101 -3.20333
84 101 -4.35662
85 101 -5.53395
86 101 -6.32073
87 101 -6.53856
88 101 -5.44659
89 101 -6.8747
90 101 -5.64296
91 101 -51.7467
92 101 -51.7467
93 101 -51.7467
94 101 -51.7467
95 101 -51.7467
96 101 -51.7467
97 101 -51.7467
98 101 -51.7467
99 101 -51.7467
100 101 -51.7467
101 101 -51.7467
102 101 -51.7467
103 101 -51.7467
104 101 -51.7467
105 101 -51.7467
106 101 -51.7467
107 101 -51.7467
108 101 -51.7467
109 101 -51.7467
110 101 -51.7467
111 101 -51.7467
112 101 -51.7467
113 101 -51.7467
114 101 -51.7467
115 101 -51.7467
116 101 -51.7467
117 101 -51.7467
118 101 -51.7467
119 101 -51.7467
0 102 -51.7467
1 102 -51.7467
2 102 -51.7467
3 102 -51.7467
4 102 -51.7467
5 102 -51.7467
6 102 -51.7467
7 102 -51.7467
8 102 -51.7467
9 102 -51.7467
10 102 -51.7467
11 102 -51.7467
12 102 -51.7467
13 102 -51.7467
14 102 -51.7467
15 102 -51.7467
16 102 -51.7467
17 102 -51.7467
18 102 -51.7467
19 102 -51.7467
20 102 -51.7467
21 102 -51.7467
22 102 -51.7467
23 102 -51.7467
24 102 -51.7467
25 102 -51.7467
26 102 -51.7467
27 102 -51.7467
28 102 -51.7467
29 102 -51.7467
30 102 -51.7467
31 102 -51.7467
32 102 -51.7467
33 102 -51.7467
34 102 -36.7719
35 102 -19.9722
36 102 -16.9775
37 102 -13.6656
38 102 -11.1027
39 102 -9.75901
40 102 -8.505
41 102 -7.45815
42 102 -6.71558
43 102 -5.50742
44 102 -3.52145
45 102 -1.77816
46 102 -0.499092
47 102 0.527331
48 102 1.31589
49 102 1.97024
50 102 2.49097
51 102 2.84093
52 102 3.11436
53 102 3.31767
54 102 3.454
55 102 3.52277
56 102 3.52421
57 102 3.50115
58 102 3.38862
59 102 3.23005
60 102 3.0758
61 102 2.9437
62 102 2.81926
63 102 2.71908
64 102 2.64282
65 102 2.59176
66 102 2.54814
67 102 2.51452
68 102 2.46594
69 102 2.43424
70 102 2.40016
71 102 2.36764
72 102 2.37391
73 102 2.32034
74 102 2.26363
75 102 2.14809
76 102 1.90717
77 102 1.54413
78 102 1.06521
79 102 0.459599
80 102 -0.248574
81 102 -1.05266
82 102 -1.99503
83 102 -3.09875
84 102 -4.35191
85 102 -5.78656
86 102 -7.20327
87 102 -8.28316
88 102 -8.05097
89 102 -13.2432
90 102 -12.1142
91 102 -51.7467
92 102 -51.7467
93 102 -51.7467
94 102 -51.7467
95 102 -51.7467
96 102 -51.7467
97 102 -51.7467
98 102 -51.7467
99 102 -51.7467
100 102 -51.7467
101 102 -51.7467
102 102 -51.7467
103 102 -51.7467
104 102 -51.7467
105 102 -51.7467
106 102 -51.7467
107 102 -51.7467
108 102 -51.7467
109 102 -51.7467
110 102 -51.7467
111 102 -51.7467
112 102 -51.7467
113 102 -51.7467
114 102 -51.7467
115 102 -51.7467
116 102 -51.7467
117 102 -51.7467
118 102 -51.7467
119 102 -51.7467
0 103 -51.7467
1 103 -51.7467
2 103 -51.7467
3 103 -51.7467
4 103 -51.7467
5 103 -51.7467
6 103 -51.7467
7 103 -51.7467
8 103 -51.7467
9 103 -51.7467
10 103 -51.7467
11 103 -51.7467
12 103 -51.7467
13 103 -51.7467
14 103 -51.7467
15 103 -51.7467
16 103 -51.7467
17 103 -51.7467
18 103 -51.7467
19 103 -51.7467
20 103 -51.7467
21 103 -51.7467
22 103 -51.7467
23 103 -51.7467
24 103 -51.7467
25 103 -51.7467
26 103 -51.7467
27 103 -51.7467
28 103 -51.7467
29 103 -51.7467
30 103 -51.7467
31 103 -51.7467
32 103 -51.7467
33 103 -51.7467
34 103 -51.7467
35 103 -23.1789
36 103 -14.784
37 103 -13.6463
38 103 -11.0473
39 103 -9.54268
40 103 -8.16372
41 103 -7.11006
42 103 -6.14449
43 103 -4.14179
44 103 -2.03176
45 103 -0.513695
46 103 0.627563
47 103 1.54822
48 103 2.23191
49 103 2.80295
50 103 3.24731
51 103 3.53034
52 103 3.76139
53 103 3.92364
54 103 3.99807
55 103 4.04401
56 103 4.00112
57 103 3.87888
58 103 3.71999
59 103 3.58244
60 103 3.43659
61 103 3.29688
62 103 3.17925
63 103 3.07065
64 103 2.99694
65 103 2.95449
66 103 2.91222
67 103 2.87379
68 103 2.86194
69 103 2.81039
70 103 2.79445
71 103 2.78139
72 103 2.74155
73 103 2.6708
74 103 2.58136
75 103 2.44238
76 103 2.189
77 103 1.82063
78 103 1.32821
79 103 0.706735
80 103 -0.034362
81 103 -0.834584
82 103 -1.81949
83 103 -2.97962
84 103 -4.31236
85 103 -5.9785
86 103 -8.07256
87 103 -10.9242
88 103 -15.6604
89 103 -27.3915
90 103 -51.7467
91 103 -51.7467
92 103 -51.7467
93 103 -51.7467
94 103 -51.7467
95 103 -51.7467
96 103 -51.7467
97 103 -51.7467
98 103 -51.7467
99 103 -51.7467
100 103 -51.7467
101 103 -51.7467
102 103 -51.7467
103 103 -51.7467
104 103 -51.7467
105 103 -51.7467
106 103 -51.7467
107 103 -51.7467
108 103 -51.7467
109 103 -51.7467
110 103 -51.7467
111 103 -51.7467
112 103 -51.7467
113 103 -51.7467
114 103 -51.7467
115 103 -51.7467
116 103 -51.7467
117 103 -51.7467
118 103 -51.7467
119 103 -51.7467
0 104 -51.7467
1 104 -51.7467
2 104 -51.7467
3 104 -51.7467
4 104 -51.7467
5 104 -51.7467
6 104 -51.7467
7 104 -51.7467
8 104 -51.7467
9 104 -51.7467
10 104 -51.7467
11 104 -51.7467
12 104 -51.7467
13 104 -51.7467
14 104 -51.7467
15 104 -51.7467
16 104 -51.7467
17 104 -51.7467
18 104 -51.7467
19 104 -51.7467
20 104 -51.7467
21 104 -51.7467
22 104 -51.7467
23 104 -51.7467
24 104 -51.7467
25 104 -51.7467
26 104 -51.7467
27 104 -51.7467
28 104 -51.7467
29 104 -51.7467
30 104 -51.7467
31 104 -51.7467
32 104 -51.7467
33 104 -51.7467
34 104 -51.7467
35 104 -51.7467
36 104 -16.6512
37 104 -14.0458
38 104 -11.1937
39 104 -9.41908
40 104 -7.77157
41 104 -6.80287
42 104 -4.94502
43 104 -2.41573
44 104 -0.67671
45 104 0.678138
46 104 1.65601
47 104 2.47626
48 104 3.08409
49 104 3.57283
50 104 3.93283
51 104 4.16263
52 104 4.33929
53 104 4.45001
54 104 4.50036
55 104 4.48921
56 104 4.41885
57 104 4.28515
58 104 4.14061
59 104 4.0023
60 104 3.84636
61 104 3.69734
62 104 3.56898
63 104 3.46394
64 104 3.38284
65 104 3.32854
66 104 3.29894
67 104 3.25946
68 104 3.23993
69 104 3.21715
70 104 3.19527
71 104 3.15145
72 104 3.08641
73 104 2.98304
74 104 2.86655
75 104 2.71836
76 104 2.45098
77 104 2.07912
78 104 1.58118
79 104 0.954105
80 104 0.199294
81 104 -0.628708
82 104 -1.58881
83 104 -2.79441
84 104 -4.18092
85 104 -5.89352
86 104 -8.12025
87 104 -11.1877
88 104 -15.4433
89 104 -19.3127
90 104 -51.7467
91 104 -51.7467
92 104 -51.7467
93 104 -51.7467
94 104 -51.7467
95 104 -51.7467
96 104 -51.7467
97 104 -51.7467
98 104 -51.7467
99 104 -51.7467
100 104 -51.7467
101 104 -51.7467
102 104 -51.7467
103 104 -51.7467
104 104 -51.7467
105 104 -51.7467
106 104 -51.7467
107 104 -51.7467
108 104 -51.7467
109 104 -51.7467
110 104 -51.7467
111 104 -51.7467
112 104 -51.7467
113 104 -51.7467
114 104 -51.7467
115 104 -51.7467
116 104 -51.7467
117 104 -51.7467
118 104 -51.7467
119 104 -51.7467
0 105 -51.7467
1 105 -51.7467
2 105 -51.7467
3 105 -51.7467
4 105 -51.7467
5 105 -51.7467
6 105 -51.7467
7 105 -51.7467
8 105 -51.7467
9 105 -51.7467
10 105 -51.7467
11 105 -51.7467
12 105 -51.7467
13 105 -51.7467
14 105 -51.7467
15 105 -51.7467
16 105 -51.7467
17 105 -51.7467
18 105 -51.7467
19 105 -51.7467
20 105 -51.7467
21 105 -51.7467
22 105 -51.7467
23 105 -51.7467
24 105 -51.7467
25 105 -51.7467
26 105 -51.7467
27 105 -51.7467
28 105 -51.7467
29 105 -51.7467
30 105 -51.7467
31 105 -51.7467
32 105 -51.7467
33 105 -51.7467
34 105 -51.7467
35 105 -51.7467
36 105 -18.3635
37 105 -12.8368
38 105 -11.4468
39 105 -9.3281
40 105 -7.4272
41 105 -5.79085
42 105 -3.11131
43 105 -0.910006
44 105 0.578783
45 105 1.75129
46 105 2.62604
47 105 3.33183
48 105 3.86196
49 105 4.25443
50 105 4.54825
51 105 4.70776
52 105 4.82424
53 105 4.90337
54 105 4.90784
55 105 4.86733
56 105 4.78023
57 105 4.65886
58 105 4.52425
59 105 4.40497
60 105 4.26963
61 105 4.14163
62 105 4.02728
63 105 3.90029
64 105 3.79551
65 105 3.72188
66 105 3.67204
67 105 3.63151
68 105 3.63144
69 105 3.61715
70 105 3.5597
71 105 3.48897
72 105 3.39147
73 105 3.27218
74 105 3.13008
75 105 2.96189
76 105 2.71203
77 105 2.33364
78 105 1.84372
79 105 1.20423
80 105 0.45924
81 105 -0.396929
82 105 -1.36956
83 105 -2.50791
84 105 -3.90795
85 105 -5.58668
86 105 -7.57569
87 105 -10.1491
88 105 -13.1751
89 105 -15.703
90 105 -51.7467
91 105 -51.7467
92 105 -51.7467
93 105 -51.7467
94 105 -51.7467
95 105 -51.7467
96 105 -51.7467
97 105 -51.7467
98 105 -51.7467
99 105 -51.7467
100 105 -51.7467
101 105 -51.7467
102 105 -51.7467
103 105 -51.7467
104 105 -51.7467
105 105 -51.7467
106 105 -51.7467
107 105 -51.7467
108 105 -51.7467
109 105 -51.7467
110 105 -51.7467
